ply
format ascii 1.0
comment Created by Open3D
element vertex 2149
property float x
property float y
property float z
property uchar red
property uchar green
property uchar blue
end_header
287 272 217 143 140 143
333 568 122 103 117 150
317 613 121 65 79 92
236 50 71 127 112 98
117 677 102 112 82 57
329 574 117 98 118 145
178 440 166 57 78 99
282 252 105 133 34 40
294 360 151 146 144 149
281 501 203 124 138 159
267 311 63 108 32 47
322 153 158 119 106 96
221 147 85 107 87 66
275 440 227 38 64 103
323 590 163 132 127 128
278 817 94 233 165 122
279 423 228 72 80 91
121 538 113 121 95 71
137 592 93 113 92 75
227 375 174 112 107 104
222 104 66 122 95 64
292 259 192 52 84 108
327 373 106 60 93 122
273 338 222 152 129 102
266 633 211 141 102 90
300 277 172 75 56 74
304 517 182 106 124 154
263 272 288 137 135 137
248 93 257 113 91 67
314 425 86 109 115 125
289 602 197 78 90 104
308 168 198 39 60 83
290 297 167 108 124 143
192 421 141 60 68 78
293 162 95 123 106 89
283 334 120 74 107 134
274 628 207 96 66 62
319 588 102 150 148 153
270 360 222 150 127 102
144 618 88 87 74 65
222 309 67 122 130 143
310 433 157 51 86 121
300 208 193 54 23 37
259 40 118 117 88 65
281 619 208 154 115 99
239 71 252 111 90 69
136 496 108 100 57 47
177 672 44 88 156 211
249 971 206 95 76 61
113 608 108 116 88 60
298 230 224 65 65 96
308 198 198 86 25 49
201 410 147 55 57 60
329 588 149 85 103 122
289 287 162 151 151 158
234 50 113 109 90 71
236 278 32 83 113 138
289 326 90 92 92 97
284 405 182 136 127 121
273 497 228 70 97 126
330 539 112 74 101 140
288 347 182 128 126 129
285 398 173 142 126 110
244 268 37 146 145 150
278 421 228 74 77 85
278 206 74 108 46 47
290 295 70 111 125 142
298 299 179 143 146 156
284 458 193 121 135 157
310 159 123 145 130 118
282 363 228 153 128 101
282 404 229 110 98 84
305 310 91 153 117 79
243 43 252 127 114 108
316 395 92 89 109 130
330 429 102 132 138 150
249 58 222 97 89 84
291 274 193 65 67 83
145 538 125 98 76 67
304 211 209 102 92 103
295 257 194 36 72 96
331 545 113 109 126 153
110 672 88 73 99 131
326 541 170 117 132 158
286 240 183 47 48 61
286 314 132 98 113 130
263 25 141 137 102 93
275 180 33 98 92 95
117 611 124 126 96 68
273 341 223 120 32 46
222 579 62 110 147 181
240 131 104 86 69 49
325 535 102 121 139 161
319 604 180 46 52 60
326 411 97 116 125 141
283 484 198 103 128 164
333 578 139 89 100 120
335 570 134 131 141 157
290 362 137 121 122 127
281 361 276 127 133 146
160 679 60 156 95 96
321 366 96 54 94 126
294 197 240 70 94 117
290 290 234 143 146 156
249 61 119 121 93 72
171 427 85 118 129 143
266 340 69 149 169 194
194 421 128 63 87 110
299 605 87 171 170 178
339 619 196 138 111 87
186 454 86 39 69 92
269 364 219 136 113 88
325 590 159 135 130 130
285 330 173 108 122 139
308 558 86 105 120 145
317 216 164 67 110 142
125 618 130 122 92 67
286 344 132 71 103 131
112 659 119 137 98 74
237 64 62 138 107 66
173 436 81 101 122 150
292 341 85 113 119 129
286 286 127 132 65 9
281 364 173 165 144 125
286 346 178 105 117 134
303 524 76 93 115 143
284 307 158 90 128 158
293 251 220 82 119 149
294 227 240 149 132 120
297 143 122 120 109 102
296 167 102 169 73 8
211 355 46 204 88 126
271 606 213 156 108 101
262 848 110 202 151 114
331 570 119 109 119 149
272 482 208 94 116 140
138 507 105 107 74 59
256 301 43 110 148 183
280 303 219 103 111 124
280 363 270 88 103 127
294 391 82 81 96 113
227 50 93 63 52 42
272 459 224 67 90 117
284 319 168 86 78 90
294 253 148 41 83 112
283 220 101 105 53 44
272 401 219 117 47 11
216 46 252 141 128 121
125 648 130 129 94 75
293 240 246 126 2 52
237 894 115 110 84 60
281 130 127 123 72 21
324 184 154 118 55 83
298 201 128 48 49 69
137 609 126 97 75 59
337 498 120 70 96 137
309 246 174 155 102 98
285 937 184 100 82 65
271 339 219 151 125 95
298 238 195 67 46 68
289 310 256 132 120 126
267 629 209 106 81 79
253 405 75 63 105 152
285 339 235 145 20 65
308 247 170 147 110 92
294 331 189 127 142 162
326 576 111 127 144 167
235 58 115 103 85 67
211 601 48 87 139 179
204 921 124 164 127 92
293 332 185 126 134 147
138 537 105 109 88 72
290 310 81 185 191 206
176 421 76 88 115 140
120 556 115 121 92 64
328 516 103 171 167 173
279 243 97 129 28 43
132 581 126 115 86 65
297 152 184 106 106 108
213 956 125 119 93 59
267 22 147 132 93 75
271 276 55 102 116 131
281 298 61 88 145 188
298 132 149 105 60 11
225 379 68 69 135 183
334 421 114 92 120 148
259 152 38 140 86 61
296 153 180 112 89 77
222 79 223 116 117 120
229 987 121 144 112 75
120 609 126 124 93 66
337 487 119 92 113 138
131 519 126 137 100 86
271 218 50 167 51 90
306 394 88 81 99 118
276 351 224 115 11 29
275 160 50 93 71 66
244 938 100 66 56 49
136 577 126 107 81 65
286 424 195 110 99 90
300 398 154 94 99 116
327 176 156 161 75 7
337 540 130 125 136 154
324 440 93 105 121 140
289 193 179 105 49 54
282 628 205 137 98 87
291 358 159 157 157 165
252 14 142 129 116 107
294 166 98 165 70 7
336 442 120 55 94 136
240 24 125 141 128 121
228 67 248 114 92 70
221 54 84 93 82 72
289 246 190 85 44 65
284 358 230 160 137 113
321 603 119 86 93 103
278 246 91 134 34 31
176 446 82 81 102 124
226 273 32 131 132 137
257 484 86 82 91 101
128 629 131 114 87 67
290 298 205 124 115 138
327 542 105 85 111 151
305 154 196 70 45 41
283 337 231 130 10 48
235 58 249 118 95 68
269 409 72 88 111 140
338 551 141 156 158 166
151 598 117 35 42 51
275 208 40 88 90 95
304 226 196 44 53 85
284 427 185 110 99 98
277 224 76 51 50 67
293 156 93 122 110 99
293 257 145 126 12 62
273 618 210 131 104 87
297 436 77 139 146 173
270 488 220 75 103 151
277 352 261 95 109 125
289 162 88 116 95 66
337 565 136 123 138 157
283 425 236 94 111 141
271 342 220 125 49 47
279 828 103 243 173 132
264 17 148 110 82 62
318 177 144 139 82 46
238 68 116 109 86 66
139 545 128 113 83 70
278 294 108 82 105 128
333 535 121 91 111 145
323 537 99 57 88 144
288 290 242 119 132 149
241 312 40 188 186 195
274 448 210 68 94 132
276 367 302 102 116 140
115 647 126 142 104 79
292 173 180 80 59 70
282 343 170 139 141 149
436 667 162 123 98 70
126 598 127 119 89 64
143 628 127 73 60 54
218 321 70 96 87 96
274 425 226 99 88 77
287 325 175 113 127 145
289 281 160 151 152 159
218 76 239 127 103 86
289 588 88 104 106 111
278 473 231 132 146 164
319 212 166 67 117 153
328 415 131 83 110 139
281 214 93 105 48 45
138 494 111 96 61 56
288 341 180 64 89 112
336 491 116 103 120 141
295 246 222 149 140 136
255 34 128 149 132 124
311 212 176 98 69 80
277 573 206 130 148 179
295 223 238 142 106 106
326 623 197 142 104 89
337 543 131 132 144 161
238 873 112 205 142 96
298 163 104 144 113 78
338 483 141 97 117 146
256 186 149 102 104 112
275 495 231 128 141 157
140 503 107 104 79 59
278 322 220 120 17 55
349 628 193 135 101 79
259 402 296 156 165 185
228 158 96 94 84 74
155 496 133 93 73 69
329 583 126 97 112 130
261 159 41 104 60 45
161 458 103 91 87 86
117 663 127 135 107 92
267 840 108 245 181 139
287 307 134 98 105 115
292 289 139 126 132 143
263 135 122 115 100 89
137 525 107 154 117 102
138 542 128 117 85 70
291 290 135 117 115 118
269 625 211 169 116 108
327 545 106 93 118 155
278 28 123 163 149 142
149 624 67 76 114 144
326 446 96 146 156 174
245 43 122 111 88 68
256 175 148 128 68 62
248 137 102 75 62 48
248 90 256 112 90 65
282 314 125 134 137 145
130 599 127 110 83 61
292 342 150 118 101 103
273 411 216 119 101 80
339 506 132 105 124 151
266 334 67 155 154 159
302 278 176 85 127 160
288 312 135 98 108 122
299 222 135 144 52 78
294 267 233 81 100 120
322 551 100 148 152 165
218 591 65 123 129 148
273 423 226 99 87 77
199 372 74 147 112 77
262 304 52 83 129 168
277 406 227 93 61 28
233 48 111 102 86 70
337 545 153 121 134 152
334 489 112 127 141 162
309 540 84 123 131 157
146 625 129 69 59 53
121 577 122 131 98 73
145 487 134 116 85 74
282 330 227 116 92 100
225 86 60 118 87 62
169 455 124 67 80 93
290 299 136 98 99 102
222 73 245 121 100 80
288 342 135 69 101 129
313 228 167 72 120 155
291 241 192 92 23 52
291 315 141 129 126 129
286 393 187 113 122 135
273 494 227 40 74 121
278 476 232 76 111 147
303 309 85 145 125 103
288 284 130 133 60 18
302 157 192 81 40 47
284 472 196 105 133 163
268 384 222 138 114 87
279 242 89 103 33 34
238 93 256 108 89 70
272 362 77 83 104 128
290 313 192 130 130 136
285 391 238 141 115 83
272 151 42 134 68 35
250 888 98 116 88 72
333 481 153 160 159 165
134 642 128 98 77 64
294 197 187 81 28 39
174 444 145 123 131 145
304 132 213 126 111 99
260 195 165 136 63 70
278 256 84 93 43 65
290 364 130 138 136 140
256 238 42 138 136 146
144 553 124 97 76 63
246 106 77 100 86 72
291 345 141 72 104 131
158 494 135 71 74 79
124 528 123 113 90 69
241 124 72 97 85 73
144 594 125 67 57 53
291 157 90 140 126 112
295 254 193 66 78 90
117 625 127 131 97 69
274 185 68 112 34 12
151 507 58 155 156 165
276 444 228 32 49 98
236 317 41 197 189 194
287 287 151 95 119 145
289 515 70 78 96 117
286 311 131 105 117 132
164 471 177 42 68 104
325 532 101 42 78 135
176 666 43 125 102 132
260 303 48 71 135 181
248 938 83 91 75 63
234 103 205 109 98 90
163 504 94 56 71 89
239 822 93 191 156 117
328 377 107 65 102 131
251 100 257 116 93 67
223 96 215 127 122 120
284 208 99 103 43 72
279 267 95 132 104 105
282 443 238 119 131 154
303 237 158 125 105 109
124 558 123 128 96 73
289 321 177 90 116 142
302 159 214 122 86 74
143 620 130 73 63 55
133 651 129 74 89 105
293 170 178 86 43 51
278 496 79 80 91 102
293 244 127 100 97 106
298 226 132 143 71 72
276 433 227 77 81 96
276 474 228 62 76 116
281 345 228 121 19 50
286 341 131 74 103 128
303 445 80 92 110 148
125 615 129 121 91 67
119 629 129 131 97 71
302 307 85 126 118 115
294 255 141 80 90 118
280 416 228 111 96 86
299 237 146 109 107 113
222 88 98 111 92 73
230 958 118 117 87 55
140 508 130 126 97 84
329 411 102 77 99 126
298 238 142 129 105 108
224 936 108 75 58 44
323 559 102 90 100 113
281 307 121 110 120 133
300 197 219 142 45 68
302 189 214 137 39 70
272 456 223 51 78 117
307 135 209 120 95 69
259 631 212 158 124 104
284 316 167 69 109 140
151 464 115 88 75 61
308 358 106 69 84 100
141 512 104 133 94 77
233 73 251 110 89 67
267 550 213 118 131 152
235 911 99 74 61 52
281 335 75 119 125 137
287 200 101 47 36 76
333 482 108 171 166 167
298 134 142 100 61 6
123 642 130 133 97 76
298 235 194 69 54 79
272 608 213 176 116 112
270 145 44 139 81 49
159 673 59 90 136 169
324 465 97 143 142 148
250 103 83 86 73 61
263 242 48 139 57 2
290 268 152 144 145 151
289 292 132 104 92 82
132 636 130 105 80 65
278 259 85 113 17 45
291 152 230 115 95 83
306 142 164 101 87 76
120 623 129 130 96 70
274 617 209 100 83 80
270 485 85 77 89 103
284 383 234 159 68 5
219 75 241 126 101 86
271 135 120 118 91 73
290 319 90 82 89 100
278 271 95 141 137 138
284 298 126 116 103 92
252 164 33 142 84 48
281 208 91 97 37 69
271 151 64 103 78 62
305 177 127 136 146 160
323 357 102 135 138 147
299 292 179 149 151 160
309 186 204 113 34 57
244 262 33 107 132 158
161 572 45 103 121 152
337 537 129 125 134 151
335 423 114 58 96 136
297 385 86 80 95 111
258 616 213 117 98 87
331 451 104 78 111 144
279 280 60 94 100 108
293 542 76 101 141 198
315 224 169 63 109 142
304 152 194 89 70 71
304 193 195 91 33 49
243 90 74 97 80 62
270 513 224 74 92 137
284 413 234 122 105 87
114 673 109 121 85 62
240 95 73 91 75 58
282 299 219 123 128 139
248 72 79 100 82 63
314 225 165 103 111 129
310 590 93 60 90 114
284 394 184 110 115 123
279 282 106 89 112 134
311 230 164 122 99 108
114 650 125 144 105 81
274 420 203 148 80 28
284 355 229 160 137 113
330 613 195 141 112 90
302 912 154 142 118 94
276 163 69 116 105 96
245 291 37 86 116 141
296 192 189 85 46 47
275 164 65 109 96 83
226 247 47 96 35 44
122 640 130 136 98 77
161 602 45 110 128 150
283 367 178 155 133 111
127 586 125 122 91 65
284 408 240 151 141 137
236 36 259 141 102 83
282 368 174 165 142 119
300 173 117 168 78 10
268 361 75 94 107 123
278 296 101 133 130 133
224 134 89 108 88 68
234 69 115 111 91 71
274 415 209 137 86 49
321 401 93 112 125 142
134 576 126 113 83 64
284 424 184 141 132 129
141 515 105 151 90 79
274 392 225 120 47 10
170 707 61 181 179 188
285 302 225 106 112 122
273 615 209 94 86 113
279 27 122 165 153 149
336 458 115 92 113 135
318 611 144 65 71 79
301 204 194 79 17 41
135 610 91 125 95 71
283 397 178 154 82 8
221 563 42 143 164 189
291 277 251 153 154 162
248 171 34 124 94 86
287 279 127 135 60 7
241 95 110 96 79 63
282 324 225 122 8 52
292 261 132 111 77 93
154 469 122 82 65 47
284 250 189 82 60 78
262 310 60 144 96 85
274 445 209 88 95 124
286 307 226 134 125 122
297 562 82 160 168 185
321 200 160 163 123 104
275 324 296 115 126 142
256 161 39 109 67 45
363 773 146 169 161 159
292 314 143 143 134 133
301 232 148 136 100 94
261 46 111 116 90 65
288 340 252 110 123 140
273 209 56 102 60 56
279 346 225 115 74 82
269 516 215 119 133 162
284 301 127 118 115 115
142 503 132 121 94 83
282 412 230 115 100 86
149 616 123 60 54 54
266 306 60 79 131 175
304 553 83 123 135 159
299 194 128 61 88 113
123 592 96 123 95 68
234 156 53 95 75 57
323 599 119 71 91 111
273 436 220 42 67 104
252 105 95 83 71 58
146 521 127 97 76 68
213 62 63 124 97 73
288 391 190 174 150 128
130 566 126 123 92 70
113 635 105 118 87 56
279 388 77 78 97 117
286 314 242 138 143 153
292 270 194 73 87 102
292 344 143 82 101 118
268 474 86 67 95 120
280 201 76 128 37 17
287 174 87 162 73 15
133 574 126 115 84 66
150 678 75 173 174 191
291 271 190 58 90 116
237 50 116 108 89 71
301 206 216 165 99 84
290 508 72 100 106 114
185 398 62 91 120 159
330 492 160 104 123 152
238 958 116 135 101 69
294 302 174 144 147 157
121 602 126 123 93 66
277 373 226 148 124 97
291 361 83 132 135 151
285 227 185 34 41 70
280 213 86 89 59 74
169 480 128 79 92 110
270 261 56 143 131 121
220 71 54 146 97 47
234 367 64 99 126 170
335 433 131 64 104 142
270 24 143 112 69 51
285 363 231 165 139 113
162 494 97 86 69 79
245 75 115 112 87 69
300 621 202 146 106 89
286 344 242 150 113 69
273 519 231 63 79 140
239 30 91 115 102 89
129 534 126 126 97 77
306 159 197 55 54 76
319 157 136 133 119 108
334 410 116 36 85 131
294 274 196 98 109 124
288 284 77 75 105 131
317 572 94 130 139 155
110 687 105 72 58 39
321 604 155 126 122 124
170 489 93 52 70 87
334 445 110 85 108 134
308 421 83 93 107 123
298 257 197 130 128 131
171 638 41 85 137 178
290 313 139 128 127 132
136 566 128 111 85 67
311 569 90 156 156 165
282 300 123 113 120 132
303 214 145 110 50 72
225 83 59 123 91 65
244 71 117 118 94 73
286 374 242 156 93 31
253 921 102 78 60 45
127 513 107 165 118 99
284 294 221 137 138 146
230 59 249 120 97 74
129 564 126 123 92 69
286 258 67 154 152 156
116 645 127 142 103 79
152 632 118 59 55 57
272 450 221 61 87 126
286 390 186 142 99 52
240 13 127 116 104 97
284 310 165 66 100 131
268 189 51 96 52 61
243 107 107 80 67 53
312 226 162 91 87 110
280 300 216 111 124 141
232 74 60 138 110 83
334 475 110 80 103 127
290 343 139 70 102 127
274 203 32 101 90 95
180 400 68 81 105 135
237 50 250 164 148 138
292 300 170 100 117 136
275 330 221 154 127 95
312 203 151 97 83 101
326 573 110 135 148 167
306 217 151 115 73 74
149 497 134 111 88 79
296 248 150 41 89 122
323 362 101 67 96 122
213 438 80 67 102 129
127 543 107 122 98 75
339 476 132 156 156 162
286 142 242 140 114 80
295 268 196 117 121 130
302 223 146 140 62 72
306 219 197 49 27 39
120 658 128 145 108 87
299 390 150 133 124 119
112 640 121 131 96 67
283 303 222 103 109 119
284 377 232 141 117 95
285 267 68 160 156 160
276 400 226 115 57 2
135 510 128 134 101 86
286 341 78 81 99 121
286 308 130 115 122 133
250 166 36 129 81 62
338 465 127 77 105 134
231 555 56 185 182 188
332 444 106 146 149 157
223 577 61 83 140 182
149 537 98 88 87 89
315 513 85 113 126 146
200 412 136 56 88 116
169 435 88 98 117 138
177 418 74 50 87 128
242 201 40 84 28 30
277 243 78 69 46 48
249 94 257 114 92 67
276 488 231 152 158 170
272 423 222 94 84 76
252 370 72 35 76 121
254 162 36 118 64 32
284 256 63 162 165 176
243 631 211 136 96 90
276 279 57 92 99 109
294 277 197 112 129 149
301 189 130 64 63 81
286 359 253 185 157 130
247 861 108 233 175 134
204 370 80 119 83 41
293 237 192 73 46 61
310 322 91 148 122 92
325 594 121 91 109 128
119 626 128 131 97 70
286 276 218 140 141 148
302 304 84 109 120 134
297 531 74 123 135 176
246 260 36 101 120 142
203 627 39 164 162 168
252 102 257 118 97 73
289 371 187 167 142 118
311 397 90 108 114 124
338 495 127 94 115 143
321 600 116 88 103 119
240 89 256 109 90 69
309 179 135 86 120 153
292 176 238 116 68 79
285 350 79 159 162 172
287 328 233 98 123 148
298 235 141 149 95 83
263 36 119 123 89 73
285 309 78 191 189 198
272 511 227 107 120 142
311 236 172 112 112 124
221 57 91 103 89 77
248 352 67 131 148 199
284 297 222 126 127 135
274 467 212 63 90 141
155 605 52 93 124 156
197 412 152 77 78 80
146 577 88 62 95 121
176 445 125 38 54 67
272 453 222 51 77 116
284 286 63 77 107 132
269 470 84 68 91 130
192 375 69 134 95 71
309 199 198 93 22 43
328 517 168 103 123 154
291 614 208 170 104 100
122 582 123 130 98 74
337 509 122 135 144 159
155 485 135 109 81 76
271 350 221 123 30 55
160 490 135 63 74 86
336 510 118 136 145 160
295 174 106 167 74 11
285 176 84 120 109 106
264 501 78 94 104 116
275 333 222 154 131 106
283 416 233 118 87 90
299 142 182 135 70 3
304 163 115 159 110 36
331 489 158 115 131 153
117 652 102 132 89 68
309 458 85 154 151 155
315 608 106 77 85 96
293 260 152 112 75 99
223 31 251 131 117 108
282 227 105 33 42 82
253 73 88 108 89 71
292 255 130 78 61 92
297 600 187 101 97 98
297 237 135 134 89 90
335 483 112 119 129 145
127 523 124 132 101 84
293 336 147 113 130 149
296 238 131 104 101 114
283 339 171 142 142 148
285 295 156 158 158 164
284 380 233 157 61 5
271 421 222 93 83 74
282 340 167 150 151 159
296 139 125 120 105 95
219 160 87 94 82 72
224 409 83 119 134 166
298 394 147 81 96 115
289 278 157 155 154 160
138 520 129 132 96 86
284 355 176 150 130 111
244 183 37 69 55 74
305 135 198 111 87 56
212 389 210 80 40 18
319 209 163 84 105 127
127 611 129 117 87 65
291 177 183 75 58 73
273 36 99 126 90 78
281 506 203 155 158 169
308 184 199 83 37 48
331 448 103 135 150 170
270 184 53 84 61 80
194 362 60 121 65 84
288 331 137 84 103 122
242 107 108 80 67 54
270 376 223 142 121 100
285 327 229 109 90 90
158 608 48 113 133 158
296 245 147 62 110 144
121 543 113 122 93 71
282 296 218 133 137 147
274 359 224 139 113 79
159 487 135 74 65 69
333 574 128 105 121 142
290 325 178 93 115 137
326 176 153 152 60 4
369 633 187 126 101 73
295 211 122 111 47 57
296 247 193 82 58 68
265 604 213 144 104 91
308 410 138 21 70 108
157 546 48 125 133 148
275 219 69 95 43 46
235 110 252 108 98 88
121 596 124 123 93 65
281 332 208 179 149 116
282 322 126 131 128 130
288 312 245 123 137 156
304 218 148 123 66 71
265 490 84 87 97 108
300 205 137 65 49 68
273 332 218 153 126 97
284 190 85 84 43 34
302 162 111 151 130 105
294 285 168 139 141 148
260 297 44 105 141 173
270 540 223 78 104 139
274 348 223 126 4 54
170 704 60 186 182 188
269 541 219 105 127 161
331 531 114 59 85 137
284 532 199 144 161 183
303 518 184 117 136 160
289 315 173 83 68 88
294 264 230 76 112 143
132 535 105 121 97 75
243 855 187 124 95 65
131 758 89 86 96 169
288 412 75 105 113 123
237 80 114 113 89 68
263 539 69 164 153 150
159 510 95 112 108 108
288 301 244 101 128 154
322 490 92 75 99 125
304 322 97 113 73 64
163 493 96 64 64 77
339 498 135 156 157 164
126 650 130 128 94 76
284 247 188 89 35 62
139 526 106 149 110 95
283 274 260 82 98 116
296 272 199 164 165 175
238 107 72 97 83 70
234 94 253 113 93 73
293 275 163 139 139 146
268 631 209 145 113 94
224 311 32 186 185 198
302 206 194 81 33 50
287 389 188 176 152 127
330 517 164 107 123 150
232 225 42 27 50 78
231 147 98 102 82 61
197 448 77 23 76 111
244 186 38 59 56 85
305 212 148 110 41 69
273 357 224 115 58 42
272 200 44 67 80 93
193 454 72 46 75 112
277 340 225 116 101 89
329 400 104 96 112 140
254 57 79 114 95 76
292 290 204 111 129 151
333 571 156 139 142 150
229 148 63 103 86 66
299 228 194 25 53 88
274 507 229 97 113 139
252 630 213 160 123 105
296 376 148 118 126 138
285 330 230 113 94 110
294 322 184 101 122 144
133 629 130 102 79 62
292 283 164 138 141 148
304 364 107 71 62 69
280 233 96 41 41 48
129 501 125 126 100 82
282 189 81 89 21 26
287 171 86 166 81 10
281 273 112 100 116 133
290 361 127 141 139 143
294 412 77 122 127 136
270 199 64 54 44 48
125 634 131 125 93 72
291 268 189 59 89 113
255 126 95 76 67 58
207 621 52 110 129 151
268 539 219 83 110 147
326 457 98 128 138 156
131 568 126 122 90 70
305 159 113 150 135 121
121 599 125 122 93 66
251 17 140 153 139 133
285 224 184 47 53 77
307 142 201 113 50 21
147 599 122 57 52 53
313 609 103 82 90 102
270 555 76 213 193 184
325 395 98 69 98 135
284 319 225 126 83 60
242 189 28 63 51 85
249 30 85 111 99 87
128 590 126 117 88 63
266 27 137 159 124 122
291 273 159 145 146 152
286 318 257 151 147 149
294 442 77 121 132 158
284 205 96 100 49 70
212 50 231 134 123 116
286 450 184 77 103 151
328 380 114 101 124 148
294 240 128 97 93 106
289 318 174 138 133 136
142 640 80 27 70 119
297 233 230 118 75 96
148 628 126 64 56 54
307 477 83 112 119 136
145 613 86 76 85 96
256 498 240 108 131 179
277 185 71 107 47 25
290 236 189 77 47 68
290 310 138 136 136 140
285 388 184 137 97 48
301 913 159 137 111 90
283 349 164 152 150 156
279 276 102 137 137 142
286 503 195 84 112 158
335 495 151 144 143 149
340 629 197 82 55 51
286 167 246 124 45 71
163 486 163 83 105 126
278 237 86 104 41 43
234 891 115 125 91 64
281 298 118 88 84 84
302 508 77 77 99 120
272 505 225 100 118 140
169 461 159 54 69 87
291 326 143 80 117 146
284 291 220 145 146 154
115 660 126 150 110 91
283 328 226 117 91 95
127 487 122 131 95 82
288 274 221 90 56 73
321 606 124 80 88 98
299 184 221 112 49 72
286 333 134 66 88 108
295 251 139 37 90 124
284 344 231 131 5 54
285 170 82 156 67 10
247 99 106 79 66 54
275 327 220 146 121 91
279 306 102 97 66 74
231 61 249 115 93 70
327 588 157 95 107 123
208 610 58 179 174 178
223 165 64 122 107 93
276 228 66 81 28 45
303 158 109 128 114 105
278 285 103 95 112 131
274 212 41 134 111 93
306 521 78 84 109 136
333 526 116 182 179 185
132 499 127 133 102 87
304 270 175 80 119 149
282 192 82 134 34 18
302 216 211 104 91 111
114 628 126 129 96 68
287 316 170 80 108 131
239 76 116 116 89 71
221 82 95 114 96 80
289 334 252 128 141 159
292 176 185 76 60 77
282 583 88 102 95 90
301 209 140 103 41 60
238 89 111 103 83 64
208 355 74 121 100 80
310 153 202 81 55 69
304 201 196 80 21 38
147 480 133 86 72 59
132 529 127 130 96 80
133 579 96 120 95 73
115 633 127 128 94 68
309 183 201 97 26 43
236 90 255 108 89 69
291 276 160 148 146 151
276 485 230 109 120 135
310 598 94 137 151 170
315 221 166 111 109 119
131 601 127 108 82 60
293 234 191 63 40 70
325 591 120 96 115 136
305 505 79 123 127 137
246 257 35 95 118 144
139 520 128 124 90 80
118 583 122 130 98 71
324 592 116 118 133 152
290 189 103 41 61 110
252 117 81 79 69 60
273 198 31 116 73 65
240 86 255 107 88 67
289 190 99 66 50 75
225 54 95 95 84 75
141 488 112 142 78 77
272 508 226 105 121 141
259 959 113 103 78 56
293 287 202 149 148 153
150 655 67 102 87 104
211 358 80 107 122 141
300 199 135 41 69 98
233 310 34 141 161 193
272 485 242 102 121 168
288 250 119 94 48 50
241 613 210 157 116 109
215 166 80 113 102 93
338 545 137 129 143 162
248 40 250 141 131 127
336 431 122 58 93 138
281 387 78 97 111 128
270 406 221 103 88 72
283 430 236 142 149 162
264 193 30 105 52 60
284 320 129 105 118 134
281 230 94 39 49 77
233 322 44 134 157 185
279 365 227 142 119 93
252 112 87 79 70 61
292 261 242 74 110 142
282 431 232 117 128 143
238 73 116 113 89 69
288 229 181 52 57 75
299 139 181 118 73 18
276 155 72 94 83 76
139 550 128 113 82 69
336 443 132 95 121 150
322 602 146 120 119 123
337 559 132 124 137 153
285 315 166 73 110 140
308 209 203 95 71 93
313 525 84 131 134 148
301 141 140 94 83 74
198 364 65 135 96 67
249 167 35 125 73 34
283 394 175 146 68 25
237 282 34 81 118 148
184 426 146 48 61 73
253 938 82 98 79 64
293 269 161 128 125 129
279 304 109 141 138 141
279 395 227 101 63 35
276 160 42 109 71 73
227 134 92 109 89 68
221 345 50 197 159 115
145 554 124 93 74 63
287 383 186 151 128 105
321 197 157 139 80 70
146 494 134 124 100 86
258 41 118 116 90 66
201 408 105 89 107 126
273 293 52 85 140 182
231 94 250 116 96 75
326 421 96 95 114 138
291 269 254 159 158 164
331 503 107 102 115 138
269 585 88 77 57 48
330 399 106 57 92 128
272 394 73 77 99 125
224 115 91 113 91 67
325 157 147 132 118 106
288 328 136 87 104 121
285 324 228 114 109 109
256 607 212 94 53 81
112 622 107 116 86 56
240 611 210 141 125 118
270 333 69 144 144 150
298 299 183 167 166 173
240 101 108 91 75 58
287 165 84 156 76 7
281 267 110 123 116 116
326 173 152 162 71 7
275 175 67 127 65 7
275 216 68 85 45 33
276 588 88 123 118 118
288 326 248 95 117 141
317 533 91 112 127 153
340 486 133 92 112 134
274 176 63 141 67 7
269 194 58 61 45 56
287 227 181 44 50 71
308 141 203 118 54 0
308 516 80 95 113 134
111 635 113 125 89 62
125 576 124 131 97 74
313 603 101 163 166 176
297 213 172 107 37 60
255 68 88 104 87 71
134 628 129 99 77 61
288 317 135 95 108 124
320 413 91 133 133 137
311 149 203 105 102 102
270 322 68 141 145 154
339 500 128 103 122 149
302 173 193 74 56 69
258 975 120 102 82 61
282 434 233 29 78 129
334 494 112 94 116 140
119 567 113 111 86 59
289 312 172 65 103 131
240 906 104 67 55 46
283 597 79 113 126 140
161 488 136 56 71 87
112 664 117 139 97 74
198 415 137 41 72 101
312 453 86 150 152 162
300 395 157 116 78 67
277 179 69 116 73 56
224 290 41 82 98 117
171 427 89 83 109 133
260 234 150 137 83 82
294 172 187 74 46 62
248 62 119 121 93 72
280 372 202 151 14 61
312 620 199 145 105 88
245 67 118 118 93 72
278 231 84 42 41 42
297 154 100 135 121 108
234 50 251 174 157 149
328 398 102 60 92 125
293 272 162 133 133 138
317 216 168 121 118 128
260 609 212 97 62 98
120 636 129 136 100 77
222 114 87 106 87 66
117 641 128 140 102 77
301 261 167 109 32 73
326 587 118 90 113 138
284 307 162 79 120 152
273 535 69 161 175 198
294 227 244 140 105 78
294 375 142 122 126 135
258 322 63 171 163 167
279 236 85 99 39 44
329 490 102 123 129 145
205 631 50 152 153 160
286 325 244 45 85 121
286 366 245 166 141 115
306 600 184 63 61 62
304 157 111 144 128 115
272 401 223 118 54 10
294 319 183 101 127 153
222 144 87 107 87 66
277 233 59 114 113 120
287 168 85 156 72 7
281 270 111 126 131 140
121 654 129 144 105 86
280 281 60 86 102 118
274 433 203 127 107 99
280 432 229 71 85 111
285 339 239 173 138 112
297 214 127 111 39 57
306 568 87 159 165 179
333 427 108 91 112 135
245 125 72 101 89 77
279 266 85 120 39 71
321 504 168 85 98 113
290 277 137 120 100 94
285 369 81 122 128 139
292 253 218 72 112 144
327 383 103 51 89 118
285 332 199 186 154 118
249 102 258 119 97 72
285 404 75 72 95 122
305 168 122 158 77 7
306 607 200 137 110 91
272 431 223 77 54 69
117 676 98 100 86 77
280 295 116 107 91 89
299 209 225 120 104 97
177 430 194 79 104 138
272 472 224 83 102 135
298 305 81 164 173 190
291 270 158 133 134 141
238 104 205 100 89 80
277 502 75 77 92 106
246 175 38 87 59 63
323 424 92 141 138 140
293 360 143 126 129 137
300 798 92 172 121 80
183 437 111 42 72 94
269 202 29 124 71 62
323 193 159 139 87 76
237 72 253 110 90 68
333 457 108 104 120 141
118 571 110 108 84 57
275 352 224 119 0 44
222 342 48 203 161 108
277 182 70 105 82 73
290 307 137 113 120 132
222 97 217 115 111 109
135 578 126 110 82 64
281 312 121 146 142 144
285 385 183 149 129 107
114 600 119 127 92 66
208 404 129 92 100 111
290 606 204 114 97 82
231 69 57 144 106 59
289 341 81 107 110 117
287 319 230 164 147 133
234 141 99 102 81 59
224 567 52 165 169 181
277 235 81 98 39 38
208 841 103 169 132 94
152 486 136 123 89 83
285 306 75 187 188 199
327 590 150 99 112 129
242 96 110 89 73 57
253 242 34 147 142 144
285 438 194 112 131 155
276 230 59 115 113 115
263 619 213 151 106 92
288 304 168 78 102 124
227 68 248 115 94 72
302 156 107 136 122 109
287 628 204 144 96 89
242 131 104 81 64 46
284 250 112 112 35 43
241 879 115 179 131 91
324 569 103 123 139 160
284 415 179 127 110 94
275 134 122 118 81 53
237 423 79 93 102 115
288 223 179 37 54 73
285 167 81 152 65 7
127 630 131 118 88 68
210 359 47 207 88 129
337 553 130 106 122 142
283 372 229 118 114 115
322 408 93 85 102 122
333 540 119 109 125 144
289 274 148 136 139 148
331 426 104 109 123 142
294 619 205 161 112 99
289 301 251 98 84 98
262 13 147 114 105 102
283 314 224 145 121 92
304 168 195 43 54 78
143 540 126 105 79 64
287 297 225 132 132 139
337 565 140 156 154 158
297 265 199 170 168 173
276 237 75 89 44 44
234 321 43 162 171 190
296 437 77 148 151 172
265 21 147 144 102 92
263 139 111 112 100 88
283 276 117 140 68 14
275 238 71 73 48 70
287 313 169 76 111 139
306 571 88 198 187 184
322 362 98 77 101 128
260 346 70 71 98 185
168 614 41 159 158 167
296 241 138 58 109 145
275 180 66 108 87 76
332 496 109 72 96 126
240 197 33 51 48 63
296 208 190 53 34 39
283 383 179 157 130 97
300 150 190 109 108 111
331 456 104 142 148 161
292 173 184 75 64 73
304 198 195 88 29 50
309 180 200 85 30 39
202 366 73 145 111 75
115 630 126 128 96 69
431 656 140 74 82 94
265 222 29 61 99 139
281 369 200 152 9 64
203 407 135 71 84 99
273 138 112 116 98 84
182 666 41 72 143 199
274 408 226 89 78 69
274 367 225 144 123 102
290 209 113 97 32 43
273 462 209 62 95 136
234 66 59 145 109 59
265 451 266 86 108 171
299 921 164 131 109 88
274 443 220 44 75 125
192 450 83 37 73 100
314 219 161 73 105 133
301 220 195 38 44 58
168 442 92 122 131 144
290 186 102 76 56 81
245 112 105 78 64 49
305 162 195 39 63 89
276 586 205 174 177 188
126 628 131 121 92 69
182 393 67 143 144 150
289 187 98 95 55 74
335 505 115 138 143 154
308 209 150 94 69 88
259 30 132 139 123 121
242 50 249 155 138 128
302 188 129 115 76 76
298 276 170 85 54 66
274 438 226 41 67 100
121 535 116 125 95 76
279 205 77 128 48 31
331 539 115 74 100 137
154 497 133 95 74 73
289 199 108 57 66 93
326 370 105 84 108 133
270 198 64 59 45 54
178 405 72 48 92 126
260 160 41 100 70 56
133 560 127 122 90 71
284 317 128 110 122 138
310 441 161 90 110 137
219 83 84 112 92 71
282 428 231 115 125 140
288 226 180 37 51 74
245 280 39 99 82 83
290 251 123 100 57 56
244 108 107 80 66 50
299 418 78 108 120 136
248 935 86 95 80 68
321 576 100 151 155 166
298 197 227 133 65 71
131 557 101 118 94 71
307 166 197 27 63 87
339 489 132 166 162 164
299 189 191 85 43 38
160 487 57 77 108 136
304 204 144 94 79 96
291 271 247 154 155 163
298 149 186 100 101 103
269 358 221 137 115 87
222 265 69 69 31 36
250 58 76 119 99 79
291 361 140 123 123 127
279 177 72 112 62 40
301 255 165 133 87 84
314 615 110 80 72 79
278 214 78 35 54 99
222 382 65 66 128 191
285 340 119 99 115 132
168 576 41 115 131 157
296 580 88 127 149 196
277 389 227 126 81 41
233 64 59 122 94 63
271 210 30 132 125 129
127 580 97 121 96 69
120 578 122 131 98 73
298 227 227 55 94 126
261 277 50 90 104 117
307 196 197 88 32 49
305 312 88 141 107 71
286 319 242 89 119 147
316 531 89 119 135 157
236 137 101 97 76 55
325 490 95 69 95 129
113 617 121 127 95 68
211 600 44 86 136 176
145 579 77 145 143 147
183 449 150 90 102 120
292 367 160 90 113 137
283 185 82 88 47 50
373 766 143 225 202 186
286 246 114 100 45 53
277 378 226 130 96 49
277 419 227 69 65 70
121 607 126 124 93 68
334 461 111 141 143 152
296 348 88 95 111 129
282 186 78 85 44 31
214 346 44 193 76 114
281 361 227 142 116 84
296 251 155 50 84 116
141 482 132 100 78 61
246 88 256 111 89 65
289 215 186 39 34 46
312 420 85 87 102 117
294 238 192 75 53 62
200 645 38 80 137 186
136 541 128 122 87 71
296 154 222 43 65 85
335 572 131 109 128 151
290 364 134 132 130 134
179 431 145 50 58 67
278 256 88 97 49 70
328 174 156 152 70 4
284 219 104 94 33 34
197 417 69 72 113 193
285 221 181 36 50 68
259 245 46 152 65 9
119 587 123 129 98 70
305 360 105 68 69 84
290 308 202 165 124 102
285 386 248 159 86 36
303 380 90 50 87 118
271 619 211 152 116 97
152 607 118 40 46 62
305 263 172 100 95 100
227 265 40 87 53 65
275 427 211 111 96 82
133 522 127 132 97 82
287 287 155 105 130 156
211 310 39 126 131 141
302 203 140 41 65 86
217 63 245 125 96 79
228 107 245 95 86 79
271 183 31 86 82 88
297 298 176 157 158 165
200 405 177 73 50 50
320 364 95 81 108 137
175 455 160 80 81 85
279 267 99 127 105 105
271 352 217 108 14 45
325 585 116 111 124 142
334 544 122 123 137 156
253 41 123 122 91 71
265 963 120 155 123 86
167 455 170 47 70 89
298 152 187 116 96 95
155 520 52 96 117 142
325 191 162 150 74 88
277 363 79 64 91 115
301 916 166 117 89 69
250 61 77 113 95 77
379 764 129 214 184 158
329 174 163 167 69 5
288 298 166 98 115 135
257 200 144 62 99 127
292 183 177 82 63 73
278 281 94 140 137 142
271 213 31 154 122 130
275 968 134 130 100 74
280 358 227 143 118 86
312 480 85 165 163 169
139 509 130 128 99 85
140 543 128 112 82 68
317 604 173 49 32 30
289 295 249 106 126 148
261 958 114 84 64 46
322 602 122 87 95 106
290 914 146 151 103 78
256 180 175 116 36 65
337 454 122 84 116 146
247 275 41 130 132 138
241 33 257 142 110 92
300 248 161 124 98 107
336 455 118 48 85 127
286 562 80 158 172 193
253 87 252 106 88 69
271 470 222 76 97 133
205 922 122 159 123 99
246 91 257 111 90 67
289 218 187 36 38 50
290 268 156 150 150 156
338 511 128 83 105 140
240 105 257 107 92 78
337 548 134 108 129 151
323 572 102 145 153 169
272 486 227 98 116 137
272 527 228 84 104 146
327 380 102 45 86 115
289 308 80 189 191 203
268 371 74 72 94 118
186 416 229 51 66 80
335 469 113 83 103 125
206 628 56 121 129 143
280 292 115 122 123 129
311 462 168 91 108 139
279 293 111 93 111 130
159 466 120 96 82 68
333 512 112 160 160 169
252 164 37 126 61 47
321 168 142 172 57 11
284 399 182 139 60 5
146 640 120 60 54 53
286 281 218 147 148 155
270 175 48 102 81 69
286 330 80 87 102 119
275 349 223 124 0 50
289 322 136 97 107 120
280 436 244 97 124 164
292 255 187 85 38 53
278 456 229 84 102 123
272 516 227 73 90 138
268 921 110 52 46 43
271 130 130 121 85 58
289 301 198 113 101 119
279 472 234 96 124 157
314 225 169 70 116 150
341 627 196 121 84 69
315 603 169 99 92 88
174 447 126 77 86 97
298 270 168 80 114 140
239 22 124 134 122 115
288 301 167 77 100 121
292 421 75 123 134 150
227 65 247 116 95 73
263 616 212 81 71 74
277 184 39 106 106 114
261 229 38 129 8 55
223 382 134 115 109 107
304 186 132 120 73 68
314 416 87 121 125 132
278 296 105 133 131 135
207 367 82 143 124 105
283 369 228 157 134 110
264 621 213 169 118 109
332 574 124 116 133 154
207 443 77 107 123 141
288 232 188 68 57 72
267 553 218 154 162 179
246 616 212 156 111 102
282 221 101 96 36 26
270 526 224 59 88 129
297 262 198 149 148 153
226 73 56 137 95 69
364 626 182 108 90 70
319 789 98 165 121 84
206 405 118 107 115 128
296 222 193 42 60 90
232 181 43 139 58 4
325 188 159 146 63 87
279 305 70 196 194 202
273 140 105 109 99 90
258 416 290 183 176 180
331 511 108 116 126 150
261 222 156 124 96 94
301 220 142 144 41 74
190 427 133 20 41 63
255 36 125 122 89 64
308 535 82 119 134 159
290 279 240 142 147 159
142 584 125 78 65 57
239 195 28 62 49 78
117 577 119 127 95 67
278 330 224 124 92 64
337 617 196 137 110 85
245 56 120 113 88 66
151 519 101 69 77 86
206 631 57 109 117 128
287 299 194 105 107 115
316 525 87 112 121 143
226 967 124 95 68 48
269 516 219 80 105 145
256 237 38 144 124 122
276 398 74 65 92 122
250 70 249 101 82 63
292 297 143 135 144 158
282 453 235 102 124 155
254 27 136 127 114 113
294 313 179 101 122 145
283 179 80 125 81 58
282 263 111 100 44 70
276 507 209 85 100 128
265 307 60 77 124 162
273 436 224 35 66 100
287 350 132 78 97 121
335 426 119 63 103 138
326 506 98 155 155 164
274 128 132 122 81 46
125 584 125 126 94 70
286 351 128 111 101 99
337 517 150 106 124 145
207 901 150 127 53 12
259 520 64 89 110 133
268 530 214 86 111 164
222 938 109 86 69 54
339 473 135 163 160 164
269 191 55 77 49 65
121 549 119 135 99 75
320 462 93 159 154 157
130 508 125 133 101 84
122 606 95 130 100 70
279 475 235 104 132 162
263 567 80 209 190 177
298 174 190 75 50 69
290 197 184 87 27 48
141 593 126 78 65 61
120 550 115 129 96 70
122 542 110 112 90 70
218 63 89 110 93 77
311 412 134 73 99 122
164 618 44 168 165 170
279 161 75 111 91 70
302 222 195 36 54 73
145 535 126 92 74 65
292 327 143 83 118 147
289 196 107 45 53 86
138 498 130 134 102 89
294 269 230 92 103 125
291 347 189 99 126 153
273 466 224 58 87 123
293 270 226 76 103 129
277 164 56 134 119 104
177 440 134 59 71 83
163 498 96 67 72 91
339 503 135 94 116 146
299 244 195 86 20 56
281 236 102 85 44 62
269 262 56 147 132 118
286 418 195 153 142 136
139 531 106 128 99 81
325 474 98 95 111 129
315 174 139 177 79 12
113 642 125 135 98 72
292 603 199 58 62 68
124 593 126 121 91 65
152 468 122 73 62 54
334 410 120 56 97 135
281 312 97 75 104 129
250 113 80 84 73 62
269 297 50 97 149 192
128 535 126 126 96 77
288 284 81 82 94 110
329 587 145 86 100 116
278 228 81 41 41 45
283 604 205 66 67 71
284 439 199 99 117 154
286 362 236 182 156 128
276 610 91 85 176 228
291 358 139 102 95 94
284 282 215 146 148 156
268 235 50 147 121 90
249 68 249 100 81 61
296 243 211 78 114 145
277 345 225 118 75 84
289 240 190 88 29 54
287 199 97 84 58 80
120 575 121 130 97 72
290 356 190 145 13 63
292 181 102 136 39 22
291 296 200 110 117 140
247 64 223 69 62 57
321 203 165 136 115 107
272 450 225 70 89 119
324 505 94 154 152 157
287 302 195 87 92 101
316 528 88 133 142 157
320 204 161 121 109 105
128 565 126 123 92 70
266 472 86 64 93 127
278 258 81 106 29 51
275 202 40 74 89 112
250 73 250 100 83 65
252 65 245 103 84 63
278 390 200 185 155 123
250 159 24 133 118 105
334 516 115 168 169 180
304 226 176 79 63 79
285 388 241 162 72 6
297 222 128 122 36 57
159 490 169 68 90 111
306 314 88 148 113 77
287 184 91 86 42 61
300 590 88 100 112 126
216 172 74 111 95 80
289 212 185 37 31 39
334 569 126 133 143 162
332 414 110 105 120 141
165 468 83 78 79 87
297 201 190 83 27 38
139 504 107 103 76 59
305 392 125 128 128 133
308 145 165 108 95 83
327 508 100 135 141 154
310 202 202 148 58 53
187 694 47 205 197 206
280 286 113 122 121 124
143 529 128 102 77 70
241 28 261 161 131 111
295 261 160 102 64 82
249 111 80 87 75 63
162 485 92 104 112 127
117 673 95 87 84 93
225 32 259 130 104 87
116 623 126 129 96 68
302 200 139 40 70 103
303 241 201 87 127 159
258 134 256 146 63 15
324 530 100 119 129 153
239 62 117 111 91 71
292 218 118 105 37 59
323 190 156 149 84 81
283 391 231 139 97 70
203 382 54 143 153 192
326 161 146 115 102 93
143 483 133 95 70 60
257 158 30 121 94 77
324 583 111 150 151 158
263 140 96 84 73 62
297 307 185 159 161 170
288 279 221 141 139 143
118 673 96 89 84 87
327 179 167 119 131 143
253 106 256 116 94 69
165 584 42 112 134 162
296 308 181 131 140 155
238 110 106 93 75 56
289 181 94 125 27 33
293 278 197 96 116 137
302 304 88 105 107 113
275 431 226 74 65 82
289 371 191 182 158 137
291 619 206 162 109 98
131 546 127 127 93 73
260 365 72 77 102 128
306 590 90 115 122 132
272 185 61 88 37 23
331 399 111 39 85 126
174 443 170 75 88 104
271 396 220 119 57 1
261 153 41 124 80 49
292 250 191 86 46 66
280 355 226 138 114 83
312 438 156 55 85 123
316 158 130 131 118 107
237 185 24 119 43 37
331 475 106 93 110 131
154 565 51 132 139 153
147 496 134 123 97 86
280 334 288 149 112 66
286 632 207 73 49 44
291 191 109 30 68 113
249 113 102 78 65 52
315 596 100 135 147 165
215 41 250 124 114 108
224 303 65 134 134 139
318 341 100 132 96 97
270 351 221 121 37 60
270 392 222 122 56 0
118 657 128 147 108 86
271 467 221 35 65 125
291 304 171 103 120 139
135 559 128 118 86 70
358 629 189 132 101 75
338 543 148 147 151 161
288 339 248 170 146 122
138 566 128 103 80 64
284 341 124 73 110 140
268 946 114 66 53 45
303 164 115 173 86 11
150 614 123 60 54 56
278 382 227 134 75 40
297 204 191 85 45 51
285 456 78 173 167 167
288 264 74 116 97 98
272 483 226 106 120 138
291 182 181 75 47 64
327 511 101 157 156 163
305 197 141 44 75 102
218 73 55 145 97 66
115 638 127 136 100 73
211 929 111 143 121 105
137 567 97 117 94 75
121 554 118 128 96 71
270 230 52 116 70 71
295 264 161 118 27 60
234 41 112 101 85 69
274 428 207 105 92 79
234 214 40 88 41 51
270 284 288 85 112 136
194 455 70 53 92 121
290 196 176 102 49 52
150 520 57 113 124 140
288 204 181 80 13 41
288 278 130 144 71 5
314 400 90 119 125 135
278 412 227 92 79 71
335 420 117 59 103 141
288 354 125 138 135 138
266 40 108 122 93 73
326 164 147 100 91 85
256 196 200 37 36 56
282 622 207 166 119 104
272 490 242 133 152 183
285 201 94 97 46 75
324 586 112 143 146 155
241 618 210 159 114 118
321 616 198 152 112 98
260 210 268 106 36 39
284 410 237 149 135 128
121 543 117 141 103 83
291 362 125 135 134 137
303 150 193 101 104 111
290 191 182 103 32 40
241 281 36 80 104 126
281 297 218 124 129 140
275 434 227 81 91 109
211 352 76 115 123 136
179 464 69 123 137 154
203 374 81 111 75 30
225 565 51 167 166 175
209 610 50 125 80 98
306 257 172 127 54 79
295 190 188 89 45 43
117 602 123 127 94 67
220 61 92 102 87 74
157 502 130 71 72 80
270 540 227 66 91 133
232 160 52 109 95 83
219 335 41 218 155 82
283 530 69 107 124 165
411 653 172 120 96 69
294 163 182 87 54 54
229 65 56 126 106 86
299 145 187 139 61 6
307 161 121 145 130 114
276 357 212 144 13 61
278 222 79 32 45 74
127 553 104 118 96 72
313 224 162 63 93 120
241 57 119 108 87 65
288 342 249 170 144 119
243 100 258 113 91 68
125 609 129 119 90 65
281 380 229 142 69 4
291 274 254 157 157 163
136 519 129 135 100 88
220 561 41 124 141 165
291 185 182 107 55 56
309 628 203 49 43 42
300 218 137 134 37 69
288 294 208 115 129 146
308 192 198 82 29 50
152 626 120 59 52 57
194 382 76 147 117 83
218 325 36 122 155 201
324 163 143 149 133 117
339 475 128 108 125 145
295 248 142 64 113 147
302 148 193 88 94 102
268 550 224 63 93 135
277 468 229 42 74 109
330 533 112 130 138 156
294 310 178 118 137 159
228 74 57 139 105 77
281 410 229 95 81 68
273 433 223 54 64 99
153 594 54 128 142 161
202 409 148 65 61 59
281 261 106 99 73 87
326 503 97 149 148 154
288 388 193 184 158 133
213 595 46 84 138 178
320 181 148 131 136 145
307 147 199 108 51 23
266 356 74 122 127 137
124 618 130 124 93 69
301 399 158 117 90 104
311 407 87 54 82 107
269 188 54 86 52 78
215 349 82 137 137 143
306 182 132 70 93 127
140 608 125 89 71 60
338 505 124 124 136 152
269 380 224 135 112 87
285 346 178 102 117 135
313 597 97 109 127 147
286 346 239 178 150 118
302 219 194 37 35 46
274 310 69 164 163 169
339 523 145 61 75 126
330 530 164 101 121 151
299 470 81 130 135 148
319 159 133 135 121 110
242 97 258 113 92 70
221 102 82 110 90 68
293 300 173 140 142 150
203 632 42 143 144 152
136 492 130 137 104 90
254 237 27 129 114 123
329 506 103 150 152 162
277 231 70 85 46 55
307 218 200 107 49 62
124 648 130 131 95 75
290 356 137 85 49 59
294 366 86 59 95 125
285 401 235 149 137 130
332 539 160 120 134 154
284 335 173 120 128 141
280 263 100 95 78 91
113 639 124 132 98 70
145 620 130 70 60 53
221 67 246 117 96 75
269 544 224 67 87 134
267 214 28 120 120 126
326 528 103 161 159 163
275 582 208 133 149 175
280 256 60 130 130 141
114 667 109 108 79 58
277 226 76 66 44 60
271 489 224 66 88 130
224 255 238 119 114 114
285 429 189 125 87 90
239 942 100 63 50 38
173 430 81 92 123 152
113 667 78 72 98 132
155 657 59 84 137 177
278 278 91 142 139 143
287 196 96 45 58 82
292 178 101 129 136 144
249 124 74 110 99 88
276 198 70 104 39 25
139 593 126 91 71 58
262 227 29 69 109 145
231 107 248 101 92 83
224 81 58 128 90 67
248 51 121 119 91 72
286 197 92 89 38 60
297 168 189 70 25 35
295 276 200 135 148 165
290 266 220 69 106 135
280 311 117 135 134 139
304 240 179 108 64 68
221 985 119 88 57 34
243 277 38 110 112 117
283 214 101 98 46 41
324 555 104 108 115 127
333 473 109 87 108 136
275 368 225 142 122 103
213 359 88 138 137 142
284 360 179 152 131 110
123 633 131 129 95 73
289 341 138 75 98 124
172 445 133 84 94 107
304 258 169 118 44 74
264 31 131 129 117 124
291 298 169 109 123 140
290 622 205 154 101 90
289 283 133 137 67 22
314 405 89 90 114 138
294 339 87 120 129 146
297 198 189 79 29 38
319 610 139 72 78 86
299 288 174 138 141 149
296 158 184 116 38 37
323 528 98 139 149 166
270 631 209 145 113 95
231 161 53 116 103 89
220 315 68 94 112 131
134 629 90 91 76 61
300 141 185 148 74 5
132 575 126 117 86 67
126 589 126 120 91 66
295 258 159 105 26 53
382 759 138 172 128 101
298 388 149 116 105 100
299 176 118 128 130 134
275 357 224 114 46 50
275 398 225 119 49 11
359 628 188 127 100 69
139 490 132 135 96 89
280 165 76 120 71 3
337 481 119 96 118 153
131 513 126 141 104 88
135 583 126 107 81 64
338 627 197 116 79 69
193 398 227 107 115 127
331 164 161 141 122 100
318 354 94 146 146 151
247 48 121 113 90 69
281 584 88 106 100 97
284 338 174 135 134 138
298 383 155 123 115 112
283 239 107 96 43 54
292 252 184 87 53 71
319 493 89 80 103 129
288 385 190 181 157 133
327 407 99 48 87 122
289 178 93 130 136 144
301 301 83 111 122 136
237 205 34 82 42 59
293 275 196 97 103 114
308 165 124 158 74 6
295 306 176 109 127 148
280 195 76 143 42 19
302 280 176 87 99 117
314 187 145 123 82 62
290 189 107 25 65 114
272 182 60 114 92 95
261 150 40 127 88 67
296 529 73 117 131 168
189 429 114 43 69 90
277 806 88 213 146 105
315 616 110 123 121 126
261 53 107 119 93 67
294 263 226 74 110 140
277 181 36 93 85 102
327 536 105 66 100 138
117 596 121 126 96 68
305 148 196 104 67 46
266 272 55 99 107 116
227 150 64 105 85 62
326 437 95 17 62 108
338 545 141 91 119 150
321 526 94 71 107 140
144 571 92 59 82 101
325 623 197 141 104 89
281 230 98 48 63 92
280 415 200 128 106 77
164 648 47 82 126 162
271 522 225 31 78 126
283 281 117 142 76 4
273 478 210 86 110 144
299 213 134 120 44 64
275 418 72 75 97 128
270 348 220 123 24 57
270 482 220 106 121 154
322 542 99 48 82 146
237 74 116 113 89 68
226 303 69 139 137 141
273 455 226 70 93 118
337 559 136 121 127 143
131 624 91 129 98 71
291 301 170 110 124 142
286 356 232 174 148 121
244 185 34 74 56 78
278 338 225 118 108 98
283 334 128 94 114 133
113 654 111 112 79 56
251 50 121 121 90 69
289 337 99 97 102 111
296 161 185 85 33 30
286 331 175 115 126 141
305 194 140 58 85 109
268 625 211 168 115 108
288 296 67 139 150 167
134 510 128 134 101 85
282 337 170 120 131 146
271 337 71 134 143 161
129 599 127 112 85 61
300 496 79 93 105 120
267 932 108 59 49 46
330 527 110 126 137 155
288 275 129 139 72 12
168 488 93 69 81 97
268 375 221 144 121 95
275 524 67 98 112 151
238 84 255 105 86 66
309 429 156 93 113 134
278 194 72 122 39 30
277 567 206 97 126 169
281 255 104 137 47 32
295 217 238 118 96 92
256 281 46 131 131 134
261 263 51 130 125 126
320 175 146 149 60 4
255 137 71 113 103 96
252 100 215 85 75 67
296 605 202 118 101 85
134 540 128 126 91 75
262 298 298 86 115 141
254 378 72 32 89 131
285 340 176 130 133 142
332 433 136 68 98 137
326 550 106 106 123 148
328 165 151 135 121 108
284 210 99 106 46 53
227 964 122 107 78 53
285 210 103 99 42 50
289 323 177 79 110 137
119 636 96 106 84 61
279 327 73 99 112 128
137 548 128 119 87 70
295 245 192 87 36 59
396 646 181 115 92 66
150 508 128 100 78 68
209 607 49 102 138 168
272 558 77 239 220 201
268 196 47 70 60 61
286 302 130 115 108 106
260 245 155 102 78 83
269 270 57 103 114 127
140 492 113 105 64 56
295 321 187 131 144 162
247 17 137 146 132 126
293 207 172 117 37 57
330 505 105 115 124 141
149 585 119 51 60 73
303 235 197 81 49 82
245 37 122 115 90 69
282 133 124 121 71 28
209 848 111 208 150 114
280 604 206 62 67 74
325 523 100 165 165 174
288 170 89 157 65 6
288 335 156 119 75 81
290 313 253 143 146 156
269 538 222 80 95 141
315 171 136 177 66 9
277 493 233 132 146 168
119 567 117 123 93 66
299 216 135 132 55 72
303 401 85 91 108 127
278 353 78 104 117 142
272 19 149 118 86 67
139 522 106 165 113 100
287 331 134 73 74 90
276 465 227 82 104 131
193 380 74 151 127 101
233 75 251 109 88 67
125 606 128 119 90 66
281 377 228 141 94 42
299 397 146 109 122 140
324 183 153 124 118 124
288 289 161 116 131 149
339 495 138 160 160 167
289 365 187 173 151 129
297 913 156 152 121 93
286 334 176 123 127 137
287 310 196 94 94 98
118 586 103 107 85 61
312 432 152 58 88 125
226 161 96 100 89 81
115 590 113 119 90 62
309 239 166 108 106 113
325 408 96 88 113 140
110 679 112 117 85 64
172 446 171 75 87 101
280 351 268 111 97 111
317 595 168 131 126 126
285 346 125 81 65 78
304 605 90 155 156 164
291 309 141 141 139 142
208 330 50 122 56 38
273 488 227 102 116 132
330 530 111 153 155 162
233 64 250 112 92 71
279 236 89 70 44 45
233 105 251 95 86 77
281 407 228 105 90 72
259 960 206 113 86 70
259 201 154 83 77 92
